11.7273 7.67433 6.60897
11.3354 6.90998 2.50844
10.2766 7.66388 2.46323
10.7452 8.0931 2.43481
11.3253 7.38004 2.41117
11.0353 7.20957 2.39809
11.0471 7.74842 6.85469
11.0422 7.08264 6.80905
11.4214 7.77141 6.80081
11.0164 8.20941 6.77276
11.0195 7.8052 2.27903
10.6965 7.53261 6.95424
10.7173 7.84455 6.94082
11.4925 7.1532 6.85784
10.1815 7.31757 6.83431
10.973 6.61562 6.76565
11.3686 7.37666 2.21537
10.699 7.48785 7.05379
10.1784 7.8012 6.94142
11.5165 7.07493 6.94142
11.9795 7.99359 2.34018
10.5918 6.47987 2.34018
10.6071 7.60656 2.08491
10.7423 7.93991 7.13267
10.9317 7.08236 7.11848
10.8438 7.00698 7.10176
10.5717 8.42706 6.99548
11.9309 7.93772 6.93236
11.6426 8.51216 6.87882
9.9354 7.74456 2.16488
10.2308 7.33458 2.06927
11.4799 7.67916 2.02824
10.8258 7.88546 1.98571
11.1665 7.42521 1.98086
11.0442 7.35952 1.97666
11.9291 8.04937 7.02342
9.84371 7.86784 7.02342
11.534 8.55014 7.00549
12.2526 8.05417 6.86322
12.3552 7.80029 2.28943
11.7476 8.72222 2.26678
11.1318 6.17064 2.26678
11.4753 6.26801 2.26678
11.9499 8.37614 2.20227
10.5318 6.52519 2.10658
10.876 6.45637 2.10658
11.5492 6.69722 2.08927
10.1567 7.22519 1.99847
10.2064 7.13179 1.99847
11.2984 7.34673 7.33018
10.3309 7.86216 7.28686
10.596 8.19202 7.27615
10.6471 8.30782 7.25271
11.883 7.3233 7.18244
10.9456 6.49552 7.14974
9.91598 8.14803 7.11447
9.83788 7.983 7.11447
10.218 8.73086 7.01524
12.3667 7.99433 6.92485
9.56825 8.23793 6.92485
10.396 6.15888 6.92485
9.42538 8.08635 6.87609
12.4978 7.92632 2.27915
9.39589 7.991 2.25391
11.2852 6.1097 2.20515
9.75121 8.39871 2.15876
10.6697 6.31954 2.0732
11.5436 8.49898 1.99757
11.8418 8.0442 1.96358
9.97664 7.43687 1.93218
11.7391 7.08449 1.93218
10.0413 7.33017 1.91747
10.2434 8.11775 1.90341
11.1451 6.86427 1.86523
11.3725 6.98309 1.86523
10.3877 7.87734 1.83311
10.4995 7.88978 1.81509
11.1569 7.10071 1.81509
11.3358 7.81922 1.80711
11.3385 7.70852 1.79982
10.757 7.63977 1.77058
10.9399 7.34402 7.45597
11.0432 7.32676 7.452
11.1774 7.83114 7.4419
11.069 8.09722 7.41312
10.3687 7.88825 7.39446
11.204 8.23864 7.37298
10.668 8.25133 7.37298
10.5665 6.83971 7.3487
11.4208 8.56814 7.24206
10.2752 6.2365 7.05718
11.8761 8.90092 6.95863
9.11031 7.77264 6.82208
11.2822 5.89859 2.22424
12.3765 7.85108 2.07282
12.3606 7.66292 2.04972
9.51675 7.59399 2.02725
10.1724 8.45502 1.90588
11.5658 6.61157 1.90588
10.0489 8.03585 1.83816
10.6882 8.44195 1.80835
11.7073 7.77502 1.7813
11.4332 7.19653 1.73554
10.6838 7.58303 7.55566
11.0125 8.63333 7.3694
10.1745 8.71918 7.23479
9.6969 8.27375 7.21285
11.0916 6.1301 7.19026
11.9932 8.72405 7.11858
9.5202 8.77606 6.92936
9.31817 8.63079 6.86988
11.8146 5.79189 2.32189
12.7579 7.98477 2.23009
9.83839 8.77063 2.03659
9.92125 8.37762 1.85335
9.84952 8.27954 1.85335
12.1383 7.33825 1.83343
10.4685 8.68049 1.81419
11.2563 8.62932 1.77777
9.9247 8.06229 1.77777
9.90214 7.65235 1.74413
11.5034 8.23924 1.69895
11.3214 8.25865 1.67239
10.5032 7.23551 7.61837
10.6806 6.5442 7.4799
11.4756 8.52244 7.46288
10.4728 8.57791 7.46288
10.6953 6.44744 7.44514
11.7342 6.64047 7.40751
11.474 6.27095 7.32378
12.2996 7.26187 7.32378
9.95068 8.71688 7.27777
9.07357 8.48167 6.88289
13.1271 7.92318 6.71335
12.1435 9.52131 6.64173
11.4915 5.55644 2.2799
9.14779 8.3766 2.15226
12.756 7.92384 2.09201
12.7301 8.039 2.09201
10.0025 9.20045 2.09201
9.62461 8.91946 2.09201
10.7286 5.71235 2.09201
11.6507 6.11807 1.9263
9.66853 8.39918 1.85223
12.3745 7.47987 1.82888
11.7774 6.81042 1.68486
10.4743 6.71867 1.61824
11.717 7.22503 1.58932
11.6394 7.96966 1.57597
10.3795 7.30549 7.70775
10.7881 6.78307 7.66346
11.6752 7.18481 7.65045
10.6618 6.71268 7.63667
10.4464 6.59104 7.57393
10.0733 8.39882 7.53805
9.74013 7.4785 7.53805
9.71187 8.21533 7.45743
9.46946 7.73279 7.41277
12.0108 6.47243 7.36528
12.1099 6.58052 7.36528
9.72649 8.81349 7.26197
9.46817 8.90284 7.08698
12.9643 7.70109 7.02354
12.9034 8.08373 7.02354
9.85882 5.81989 7.02354
10.266 5.39637 6.81879
9.70682 5.56898 6.74596
8.52542 7.83754 6.67095
12.1357 5.49164 6.67095
8.46054 7.84474 6.59384
9.6256 9.56401 2.42128
11.7111 5.33156 2.42128
13.1514 7.71292 2.27563
9.70189 9.4466 2.27563
11.9241 5.57415 2.27563
12.0695 9.40344 2.20619
9.85864 9.4558 2.20619
10.8377 5.48659 2.1391
12.194 9.12562 2.07443
9.78061 6.45903 1.78952
10.3662 6.07855 1.78952
9.72005 6.66473 1.74062
10.3969 6.16144 1.74062
12.1788 8.21693 1.69454
10.0062 8.65131 1.69454
10.0398 8.4315 1.61101
12.0111 7.89047 1.57364
11.976 7.99222 1.57364
11.878 8.18355 1.57364
9.82421 7.27045 1.57364
11.8656 7.57183 1.50788
11.8356 7.80813 1.50788
11.5195 8.30302 1.50788
11.1393 8.26125 7.78473
10.028 7.3265 7.73266
11.826 7.21117 7.71766
10.4744 8.49456 7.70187
10.2499 6.67047 7.66796
11.7112 6.77446 7.66796
12.0304 6.95774 7.6113
11.7867 8.56328 7.59089
9.71848 6.83091 7.54782
11.9106 8.70507 7.50177
11.7259 6.19293 7.45279
12.3818 6.8227 7.42722
9.54248 8.54637 7.40093
9.19351 7.98851 7.34625
11.6159 5.93768 7.34625
12.1462 6.16909 7.28879
9.19111 8.63792 7.16579
8.82662 8.2193 7.03243
9.60432 9.59675 6.81411
12.1684 9.87163 6.57563
12.2404 5.31258 6.57563
9.60511 9.9058 6.49203
9.30825 5.2548 2.85521
13.6872 7.57183 2.76696
12.2264 5.1651 2.7235
12.2124 9.95271 2.6805
9.4772 9.79238 2.59592
9.89687 5.27042 2.43274
13.3263 8.0332 2.35429
9.337 9.44175 2.35429
8.55555 7.8342 2.27805
10.3802 5.25485 2.27805
12.2477 5.59765 2.27805
13.0622 8.42466 2.20408
8.617 7.68099 2.20408
9.37132 8.82127 1.93247
9.59931 8.94578 1.87096
9.02588 7.78201 1.87096
12.5971 8.00468 1.75606
9.21412 7.87109 1.75606
9.75978 6.28591 1.75606
12.1131 8.70071 1.70278
9.70936 8.68173 1.70278
9.40387 6.94029 1.70278
11.941 8.73984 1.65236
9.65137 7.59186 1.5187
10.6763 8.61791 1.44469
10.1422 6.98386 1.41234
11.5618 6.83768 1.41234
10.5395 8.3598 1.38313
10.2543 7.66706 1.33425
10.6169 8.47555 7.82865
11.8657 7.45176 7.82865
11.9204 7.09843 7.77986
11.4069 8.62174 7.76199
11.4323 6.36902 7.70362
11.9991 6.83377 7.70362
11.9055 8.5043 7.68259
10.4482 6.29982 7.68259
12.0547 6.74196 7.66078
11.1518 9.10516 7.59076
10.4599 6.0412 7.5659
11.5166 9.10537 7.5403
11.7495 9.09984 7.48687
9.33705 8.29066 7.48687
9.53314 6.52345 7.48687
9.82816 9.04032 7.43053
9.42614 8.62867 7.43053
9.18976 6.9762 7.43053
9.39352 6.56268 7.43053
11.6894 5.76523 7.34068
8.91518 7.66685 7.30933
8.86438 8.50529 7.1072
13.4031 7.72884 6.88227
9.49927 5.52939 6.88227
12.2062 9.94132 6.63656
8.06944 7.61684 6.41752
8.01529 7.43415 6.3266
7.99372 7.34036 6.28047
12.6343 5.18882 6.28047
13.9335 7.57183 2.99043
12.4947 5.06276 2.89608
12.3731 10.0583 2.75771
8.08648 7.88625 2.71248
9.29199 5.23142 2.71248
13.6788 7.4847 2.57958
8.39861 7.69134 2.2873
13.1782 8.30947 2.13254
12.6456 9.20454 2.13254
12.7746 8.92816 2.05876
9.7923 9.57355 2.05876
11.5468 5.3614 2.05876
12.0793 5.58816 2.05876
9.17726 8.80473 1.91877
8.81737 7.94069 1.91877
12.4093 8.98095 1.85269
9.9706 5.75472 1.85269
12.8837 7.57183 1.78932
12.0667 9.16584 1.78932
11.8145 9.2197 1.72872
9.50841 6.63862 1.61605
9.6591 6.9505 1.46922
10.4654 8.79754 1.42638
12.175 7.20532 1.42638
11.3856 8.57582 1.35014
11.8335 6.94706 1.35014
10.6605 6.70844 1.28671
11.9874 7.77649 7.89199
11.1135 8.8519 7.81677
9.88733 6.79118 7.81677
10.1225 8.71832 7.77428
9.42752 7.45377 7.72859
11.6755 6.27915 7.72859
12.5164 7.57183 7.67975
11.5916 9.02009 7.67975
9.38088 7.14853 7.67975
11.6369 6.14549 7.67975
12.3843 6.8214 7.65416
12.7062 7.68477 7.5728
12.6778 7.90886 7.5728
11.1315 9.34902 7.5728
10.9052 9.45555 7.51481
10.6681 9.43868 7.51481
10.4349 9.39206 7.51481
9.49199 6.34333 7.51481
12.5075 8.89438 7.39005
11.8479 5.7257 7.39005
12.309 5.98277 7.35708
8.95851 8.46255 7.32342
8.79815 7.94406 7.32342
12.8082 8.77763 7.25403
8.68002 7.53646 7.25403
12.7057 9.05948 7.18197
9.14687 9.19739 7.10729
9.63275 5.44671 7.03009
8.36685 7.36987 6.95042
9.68299 9.93937 6.82649
9.66661 5.17294 6.78404
12.5903 9.74557 6.74104
12.6581 5.4519 6.74104
12.2599 5.10336 6.65341
13.7105 8.10687 6.60881
12.7899 5.43257 6.60881
9.41527 5.08769 6.5181
9.57503 4.99768 6.5181
9.74016 4.91793 6.5181
12.058 4.89963 6.5181
9.24411 9.98107 6.47201
13.9002 7.85496 6.37841
7.86276 7.91107 6.23465
7.70027 7.62266 3.19377
12.3747 10.2518 2.847
9.78022 4.77322 2.79907
13.8478 8.0379 2.70456
13.7933 7.57183 2.56629
8.06442 7.88869 2.56629
12.0457 4.92833 2.56629
8.09614 7.25848 2.52119
9.79258 10.1078 2.43251
12.7242 5.50782 2.38896
10.0593 5.00571 2.34596
12.0586 5.11629 2.34596
11.8885 10.0614 2.30351
8.3974 8.01437 2.17958
13.4494 7.16917 2.17958
9.94576 9.58921 1.87597
12.1781 9.3207 1.80658
10.1708 5.55198 1.80658
12.4374 6.04249 1.80658
12.7781 6.89927 1.67613
11.8187 9.22745 1.61519
9.08887 8.01376 1.61519
12.0745 8.81136 1.5022
11.4988 9.05957 1.45025
11.3068 9.12062 1.45025
11.5377 8.70963 1.31323
11.3511 6.35109 1.31323
11.6761 6.52089 1.31323
12.0722 6.98136 1.31323
10.2092 6.61584 1.27398
9.83665 7.48613 1.23801
11.7551 6.87616 1.23801
10.31 6.80328 1.20536
11.4676 6.75757 1.20536
10.5397 8.35947 1.17606
10.2429 7.21114 1.15014
9.98839 7.18376 8.02063
11.1909 8.65639 7.98704
10.9818 8.68799 7.98704
10.4633 8.93377 7.86598
11.8194 8.82199 7.81898
10.5706 9.07166 7.81898
11.9611 8.84159 7.76874
12.6589 7.68178 7.71531
10.1624 9.14071 7.71531
10.2123 5.97981 7.71531
10.7894 9.40804 7.65874
9.64433 8.89894 7.65874
12.0497 9.37194 7.47077
10.6358 9.67794 7.47077
9.54689 9.19383 7.47077
11.1044 5.45462 7.47077
9.24023 6.12675 7.40223
9.32313 9.23308 7.33086
9.60416 5.68017 7.33086
10.8292 5.26928 7.33086
12.5903 9.60906 7.01858
9.83424 10.0141 6.97668
8.26644 7.01945 6.93419
10.1397 4.97609 6.93419
12.1539 10.0268 6.89111
9.07944 9.61175 6.89111
12.3999 9.92991 6.84744
9.47766 5.19068 6.84744
13.796 7.2986 6.71308
8.82927 5.52996 6.66721
13.0429 5.56322 6.66721
12.7207 9.91522 6.62081
7.97401 7.80486 6.62081
7.94202 7.33627 6.5739
12.6046 10.0768 6.52649
13.9633 7.76426 6.4786
12.7006 4.92413 6.23219
12.6562 10.3382 6.07927
7.52927 7.73254 5.76358
7.76596 7.82132 2.84764
12.6545 10.1511 2.74862
12.4274 10.1511 2.5561
7.93309 7.61899 2.5561
9.13755 5.17456 2.5561
12.8861 5.32258 2.5561
12.491 10.075 2.50919
9.08271 5.25716 2.50919
9.71948 4.87142 2.50919
8.06029 7.16275 2.41692
9.30989 5.25716 2.32679
12.4533 5.29182 2.23889
13.0489 8.74918 1.91133
9.29038 5.76569 1.91133
9.1895 9.15831 1.83586
13.2386 7.20273 1.83586
9.30292 5.99252 1.76311
9.51473 5.80141 1.76311
10.5471 5.34242 1.76311
11.8949 5.6322 1.69315
12.6723 8.69084 1.62605
9.95724 5.72914 1.62605
10.2074 9.32172 1.5007
10.0984 9.27326 1.5007
9.03273 7.66128 1.5007
9.5683 6.25169 1.5007
11.0839 5.68948 1.5007
11.6603 5.83341 1.5007
9.17829 7.99218 1.44258
12.0759 8.66545 1.33573
10.2737 6.11788 1.33573
9.89973 6.63644 1.24176
10.9788 8.63391 1.12574
10.178 6.84707 8.11662
10.2345 6.64986 8.0821
9.59571 6.91926 7.95767
10.0162 8.87115 7.90937
10.9068 9.25934 7.85774
11.5163 5.88332 7.80282
11.1436 9.45058 7.74468
12.3227 6.15813 7.68337
12.1633 5.95388 7.65154
12.2445 9.18721 7.61895
10.7718 9.65544 7.61895
9.2943 8.88341 7.61895
10.4918 9.71368 7.55148
10.0962 9.59472 7.55148
8.83336 8.21722 7.55148
10.3725 5.22184 7.36995
12.7571 5.94036 7.33151
13.2303 6.73557 7.33151
12.1816 5.41313 7.29238
11.0605 10.111 7.25257
9.04554 9.29028 7.25257
8.39257 7.85228 7.25257
12.1731 9.8803 7.17095
8.24971 6.92739 7.04368
9.96471 4.99628 7.04368
12.5938 5.39357 7.04368
8.28596 6.66509 7
9.77285 10.1522 6.95572
9.02831 9.66841 6.95572
8.12463 7.97171 6.95572
9.53394 5.11153 6.95572
9.28611 5.22297 6.91084
12.2214 10.1612 6.86538
8.1515 6.71556 6.86538
8.82106 5.52194 6.81935
12.4182 5.00832 6.77275
13.7752 6.63915 6.7256
12.615 5.05136 6.67792
9.39717 4.86876 6.58098
7.79585 7.32471 6.53175
12.4151 4.81743 6.53175
7.69689 7.62272 6.38117
7.65098 7.83041 6.27851
12.3927 4.64176 6.27851
12.1702 4.35814 5.9064
7.48601 8.06306 5.8518
12.9574 10.4041 5.79687
12.9233 10.5507 3.66863
12.4868 4.45448 3.33313
9.3771 4.61888 2.95587
9.57078 10.3656 2.54902
9.24717 4.99727 2.50029
12.8458 5.22297 2.45208
13.9514 7.38015 2.45208
13.8864 8.04404 2.4044
13.9222 7.47701 2.4044
7.95426 7.7124 2.35725
9.72815 10.2527 2.31065
8.00405 7.24827 2.31065
12.4004 5.03873 2.31065
13.2324 5.76593 2.31065
13.7826 6.92865 2.31065
9.34109 10.0019 2.26462
8.03978 7.89143 2.26462
13.7458 8.02167 2.21916
12.3637 5.10144 2.21916
11.6042 10.3116 2.17428
8.83757 5.78037 2.08632
13.6452 7.22581 2.08632
12.827 5.64976 2.04327
13.5191 6.81275 2.04327
11.5663 10.1598 2.00084
10.5632 10.2153 2.00084
8.37176 8.35998 2.00084
11.9651 5.11765 2.00084
12.338 5.31247 2.00084
8.3486 8.10711 1.95905
13.459 7.08502 1.91791
12.6195 5.85891 1.76005
11.7623 9.73696 1.68528
9.258 5.94865 1.68528
11.2672 5.27472 1.68528
13.1868 7.06254 1.68528
10.1441 5.47999 1.61337
13.018 6.81242 1.61337
8.78565 7.67299 1.54441
12.1116 9.22822 1.47846
11.9496 5.81018 1.47846
9.12742 6.82514 1.41558
12.7007 6.79693 1.41558
12.5589 6.73189 1.35585
11.7498 9.1005 1.29931
12.4148 6.68242 1.29931
12.1238 7.60985 1.06648
10.048 6.91259 1.0302
11.894 6.90566 8.17716
10.6266 8.8315 8.13811
10.0814 6.4439 8.09549
11.3139 9.14896 7.99976
12.6395 7.79014 7.94673
9.68011 6.36088 7.94673
9.447 6.30463 7.83062
12.59 6.57821 7.83062
12.9896 7.24238 7.73496
10.6331 9.69788 7.70149
8.99567 6.62361 7.70149
12.1172 5.79158 7.70149
12.6109 6.25133 7.70149
12.1125 9.47194 7.6322
11.9274 5.56746 7.6322
9.52443 9.4488 7.55985
12.9568 9.06144 7.40628
10.4254 10.0462 7.40628
8.56128 8.46804 7.40628
11.4538 5.1056 7.40628
10.0895 10.048 7.32521
8.26541 7.61374 7.28363
11.0691 10.2653 7.24138
9.59595 9.92208 7.24138
8.39837 8.52994 7.24138
12.9684 9.39095 7.19846
9.21686 9.71751 7.19846
12.4718 5.26432 7.15489
12.8786 5.59781 7.15489
9.33986 5.13991 7.02033
12.1562 10.2378 6.97425
8.69232 5.65542 6.97425
11.5496 10.4808 6.92755
10.0631 10.4221 6.92755
13.9634 7.3794 6.83242
8.45921 5.71167 6.784
9.15847 5.03948 6.784
13.8812 6.70699 6.784
9.7434 4.68281 6.73502
12.3127 4.56825 6.43026
9.51952 4.42166 6.16339
14.3768 7.90024 6.10877
14.4163 7.57183 6.05377
12.4901 4.44795 6.05377
12.5989 4.4788 5.99839
12.5104 4.40751 5.94265
12.7069 4.51418 5.94265
8.68017 10.3936 5.77344
8.71181 10.5417 3.70272
12.2567 4.13585 3.6444
9.50944 4.399 3.02123
12.9182 10.3496 2.91238
9.17509 4.69119 2.80518
12.818 10.2103 2.59616
9.08202 10.2141 2.54509
11.6758 10.5984 2.39498
7.83873 7.42579 2.346
12.6217 5.04138 2.29758
11.742 10.4708 2.24972
10.9914 10.5842 2.24972
9.2783 5.04516 2.24972
12.0861 4.83346 2.20245
8.88356 5.45331 2.15575
11.0802 10.4676 2.10967
11.8857 4.83706 2.10967
12.803 9.72602 2.06419
10.2708 10.3583 2.06419
9.84085 4.92208 2.06419
11.8459 10.1939 1.97511
9.26084 5.34037 1.97511
8.36938 8.44986 1.88862
12.7586 5.59781 1.88862
13.3149 8.614 1.80479
12.9785 9.17943 1.80479
8.3551 7.6934 1.76391
11.775 5.15047 1.76391
9.96826 5.23491 1.72372
11.9815 5.28259 1.72372
12.619 9.17943 1.57015
12.0359 9.62752 1.57015
11.4867 9.84114 1.57015
10.5341 5.2649 1.57015
12.23 9.39291 1.4978
12.2802 9.23087 1.42851
11.1735 9.70214 1.42851
12.0072 9.30421 1.36235
12.4515 6.37579 1.29938
11.1373 9.39802 1.23967
11.8414 9.03987 1.18327
11.8872 6.1336 1.18327
12.5093 6.88024 1.18327
9.69219 6.8147 8.1884
10.5669 9.08745 8.14106
11.351 9.29763 8.03572
9.32447 6.78562 8.03572
12.1672 5.94872 7.88465
12.4506 6.21261 7.88465
8.85258 7.93452 7.85193
12.6151 6.24802 7.81838
12.9245 6.54454 7.74887
13.2178 7.71712 7.71291
13.2041 7.86183 7.71291
12.1439 9.52194 7.71291
13.2444 8.17176 7.63866
11.5016 9.90086 7.63866
8.46125 8.00316 7.56135
13.1058 8.87238 7.52157
8.49027 6.82033 7.52157
10.4214 5.07783 7.52157
13.3261 8.52973 7.48105
11.0631 10.1576 7.48105
9.84942 9.97998 7.4398
8.7216 9.02517 7.4398
8.37899 8.27066 7.4398
10.733 4.94304 7.4398
11.2314 4.95485 7.4398
13.2236 6.20116 7.39784
10.7267 4.85383 7.35517
13.0472 9.34399 7.31181
9.98627 10.3558 7.13162
9.32015 10.0341 7.13162
8.37323 6.11033 7.13162
8.5776 5.80117 7.13162
8.69401 5.65687 7.13162
9.72715 4.88867 7.13162
13.8951 7.66579 7.08495
12.0862 10.3104 7.08495
8.00599 8.17843 7.08495
7.94686 7.43091 7.08495
7.96741 6.9572 7.03765
7.86584 7.62005 6.98973
13.8778 6.80844 6.98973
9.07481 10.0535 6.9412
7.89246 6.9416 6.9412
12.4804 4.90181 6.9412
10.4037 10.6586 6.89209
7.80018 7.81861 6.89209
12.9043 5.1516 6.89209
12.1744 10.5174 6.79213
7.64997 7.10405 6.63806
14.3978 7.79173 6.31634
14.4394 8.13209 6.1494
13.0914 10.3976 6.1494
9.23683 4.35041 5.97891
7.223 7.6302 5.80524
12.4754 4.2173 5.80524
14.6071 8.03998 5.74672
8.39556 10.3697 5.56944
12.6192 4.19098 5.50982
7.24087 8.09812 3.38328
13.0553 10.5402 3.20865
8.73826 10.5061 3.20865
14.5529 7.68657 3.15109
8.97838 10.5601 2.9806
9.18332 4.4892 2.92454
12.6783 10.5804 2.81366
12.3858 4.41044 2.81366
14.3491 8.00722 2.75887
12.6495 10.5312 2.70453
9.1596 4.66563 2.65065
9.46938 10.5756 2.54434
8.96875 10.1961 2.44005
13.9964 6.5669 2.38869
7.71893 7.52129 2.33787
12.3578 4.71124 2.33787
14.0719 7.87127 2.28761
12.2365 10.4111 2.23791
13.5033 5.80495 2.23791
13.7154 6.24892 2.1888
9.35746 10.1514 2.09235
7.94948 7.05072 2.09235
9.12049 5.1516 2.09235
9.2768 5.04286 2.09235
9.9735 10.3939 2.04505
8.06811 8.07213 1.95234
12.6843 5.27582 1.95234
11.6115 4.80293 1.90696
12.0048 10.1191 1.81819
8.1794 7.96387 1.81819
8.1546 7.44076 1.81819
13.6008 6.87993 1.81819
13.6232 7.91505 1.77483
12.8344 9.38317 1.6902
13.0953 6.08397 1.6902
13.1027 6.17798 1.64895
13.3377 8.36159 1.60843
11.8422 9.94216 1.60843
10.7395 10.1088 1.60843
10.6595 5.04184 1.60843
13.1417 8.71042 1.56865
12.9806 8.98119 1.56865
9.4877 9.4982 1.49134
11.1197 5.27819 1.41709
12.5744 6.2798 1.27807
10.2859 9.46256 1.21345
12.4112 6.24758 1.21345
9.9936 9.21626 1.15216
10.462 9.29061 1.09428
9.6607 6.79529 8.28131
9.62289 6.45594 8.18054
10.2319 9.26146 8.12472
9.96985 9.25843 8.06535
11.9246 5.85294 8.03435
8.88441 6.87109 7.93621
13.0667 8.27306 7.86656
12.7343 9.08332 7.79363
9.63348 9.55188 7.79363
10.9772 5.16049 7.75595
12.5981 9.37352 7.71747
13.4304 7.65112 7.67821
12.689 9.35476 7.67821
10.6628 10.0702 7.67821
13.2535 6.64284 7.67821
13.4805 7.57183 7.63818
11.6959 10.0118 7.63818
11.9232 5.21612 7.63818
8.35073 7.12111 7.59738
9.11229 5.69125 7.59738
11.9607 5.12804 7.55582
8.49543 8.76654 7.51352
8.81632 5.87464 7.51352
13.6016 7.23136 7.51352
11.8354 4.97946 7.47048
10.6338 10.3519 7.42672
11.7669 4.90847 7.42672
12.9501 5.65099 7.42672
12.9511 9.61894 7.33706
9.58462 10.1276 7.33706
8.25808 8.68062 7.33706
9.98923 10.347 7.2912
8.07468 8.25851 7.2912
9.73093 4.89717 7.2912
8.40772 5.911 7.19743
10.8957 10.665 7.10105
13.9381 6.89371 7.10105
13.9768 8.25864 7.0519
8.82128 9.89785 7.0519
8.15489 6.09906 7.0519
10.1032 10.6366 7.00213
13.9734 6.46659 6.90079
8.83475 10.1989 6.74444
12.5201 4.62397 6.74444
7.5503 6.98069 6.63747
9.62956 4.40332 6.63747
12.1604 4.38334 6.63747
14.3894 7.90144 6.52843
9.50544 4.09857 5.95613
7.16595 8.10884 5.83705
12.3152 3.98532 3.47392
8.94504 10.8322 3.35298
12.8629 10.6677 2.93998
14.5148 7.79913 2.8254
7.31861 7.51497 2.8254
8.69803 10.3711 2.76876
9.32072 10.6327 2.5468
7.50135 8.06086 2.5468
7.50268 7.7338 2.49253
7.54253 7.83899 2.43878
9.4466 4.52092 2.43878
9.65488 10.6782 2.38556
12.5948 10.4376 2.33288
12.3013 10.5508 2.28076
13.3753 5.39139 2.28076
13.508 5.55068 2.28076
7.72977 7.92583 2.17824
8.48668 5.47852 2.17824
9.25698 4.82638 2.17824
13.1808 5.29315 2.17824
8.94808 10.0561 2.12787
13.787 6.215 2.12787
14.0351 6.97454 2.12787
13.0553 9.86443 2.0781
8.67868 5.38289 2.0781
9.23467 4.97802 2.02895
13.8605 6.61131 2.02895
12.5428 10.1577 1.98044
10.1338 10.5217 1.98044
9.27913 5.04644 1.93257
8.42856 6.03554 1.8388
8.92164 9.65074 1.79294
8.51451 5.98159 1.79294
12.215 4.99525 1.79294
12.92 9.58762 1.74776
11.1663 10.4007 1.74776
9.93253 10.2341 1.74776
12.2747 5.07619 1.74776
13.6261 8.27027 1.70328
10.2003 10.2723 1.70328
9.64689 10.0085 1.65952
8.62668 9.08792 1.65952
12.4985 9.76611 1.61648
11.7391 10.1478 1.61648
9.90048 10.0752 1.61648
8.33776 8.3705 1.61648
10.4741 4.90587 1.61648
10.6432 4.88304 1.61648
10.8153 10.2259 1.57418
9.69 9.92596 1.57418
13.3997 8.38184 1.53262
9.95428 5.20058 1.49182
11.6959 5.13181 1.49182
12.2551 9.69917 1.45179
9.29726 9.48869 1.45179
12.9523 8.96183 1.41253
12.8605 9.0873 1.41253
13.3381 7.10819 1.41253
11.199 9.91664 1.33637
12.8233 8.78727 1.26344
10.4773 9.78625 1.26344
9.57261 9.38401 1.26344
9.35508 9.19985 1.26344
9.21381 6.44387 1.12751
10.676 9.37983 1.00528
9.35745 7.24655 0.897249
9.85082 6.3868 0.897249
12.4391 6.38549 8.18373
12.0747 9.69905 7.87434
8.94782 9.06265 7.83572
8.77574 8.80235 7.83572
12.5809 5.67172 7.79629
13.3407 8.44806 7.75605
10.7338 10.1896 7.71501
11.3196 10.2156 7.67319
13.508 8.41722 7.63059
13.2146 9.03716 7.63059
8.31911 8.37626 7.63059
8.47792 6.36849 7.63059
13.062 9.47402 7.49826
9.51396 5.07607 7.49826
13.6938 6.85593 7.49826
10.0821 4.78452 7.45267
12.3886 5.05891 7.45267
13.0019 9.67011 7.40637
12.0078 10.368 7.35935
11.9335 10.4422 7.31164
7.87645 7.61988 7.31164
13.8227 6.52111 7.26325
8.61346 5.45727 7.21418
12.904 5.15195 7.21418
11.8808 10.5934 7.16445
10.8951 10.7424 7.16445
8.92355 10.087 7.11407
8.18667 5.88639 7.11407
8.81941 10.0531 7.06306
9.0635 4.90297 7.06306
14.184 7.1574 7.01143
13.6673 5.69277 6.95918
14.2841 7.67808 6.90634
8.4391 5.29743 6.90634
12.9068 10.3338 6.85292
10.0438 10.8593 6.85292
8.97718 4.77888 6.85292
12.4479 4.5319 6.85292
13.1591 5.01018 6.85292
13.3163 5.15659 6.85292
13.6015 5.47765 6.85292
13.1219 10.2574 6.74437
12.5242 10.7635 6.57752
12.8355 10.624 6.52088
9.08112 4.30781 6.23065
13.1483 10.8853 5.49536
14.4944 9.54861 4.92055
14.4891 9.54565 4.14502
9.44623 3.95321 3.32268
9.1199 4.12664 3.26115
8.85118 10.7558 3.01845
9.18508 4.25138 2.89935
8.79594 10.6253 2.84042
14.4268 7.57183 2.44072
13.3899 5.0824 2.44072
7.49951 6.97178 2.38563
14.3652 7.1344 2.38563
7.61276 6.77367 2.27708
8.56225 5.11906 2.27708
9.76254 10.6924 2.17082
7.59546 7.41426 2.17082
9.47258 4.57472 2.17082
7.6888 7.21329 2.06694
12.8186 4.93261 2.06694
12.2363 10.4107 1.91582
8.89818 9.96009 1.91582
9.57755 4.79206 1.86675
10.3233 10.5568 1.81836
9.95205 10.4578 1.81836
13.629 6.18346 1.81836
12.8946 9.8308 1.77065
11.6469 4.66094 1.77065
12.1634 10.2534 1.72363
11.9042 4.78468 1.72363
13.5889 8.73323 1.67733
9.25798 9.96113 1.67733
13.0342 5.57139 1.67733
10.2806 10.3163 1.58688
8.39233 8.81734 1.58688
8.9672 5.54031 1.58688
9.38469 5.2089 1.58688
8.19117 8.05054 1.54277
9.19754 5.40181 1.54277
12.2937 9.92241 1.49941
8.29501 8.29375 1.49941
13.5819 7.31894 1.45681
12.79 9.34118 1.37395
8.46068 8.33248 1.37395
10.9002 5.04826 1.33371
13.0038 8.90249 1.29428
10.4354 9.99617 1.29428
10.3709 9.92907 1.25566
9.24272 5.82692 1.25566
13.3356 7.41909 1.25566
13.1204 8.29059 1.1809
11.2659 5.28311 1.1809
10.4874 9.73572 1.10951
8.83352 6.85358 1.10951
10.833 5.36683 1.10951
13.0731 7.08807 1.10951
12.8561 7.13684 0.977143
11.1602 9.59025 8.24037
13.0633 8.58616 8.03164
8.76959 6.33778 7.95506
10.7366 10.1505 7.8751
9.65111 9.82416 7.8751
8.42742 6.88632 7.8751
11.4669 5.04512 7.8751
10.4849 10.1728 7.83388
12.592 5.53248 7.83388
13.5604 8.07809 7.79184
11.4236 10.3149 7.70536
8.45852 8.88288 7.70536
10.4518 10.3711 7.66094
8.26697 6.56379 7.66094
13.1379 9.41958 7.61575
11.5306 4.75046 7.61575
8.37489 9.03238 7.5698
9.3212 5.11119 7.5698
10.5275 4.66373 7.5698
11.8092 4.7753 7.5698
10.5212 10.5266 7.5231
12.4478 10.186 7.47567
13.2814 9.53913 7.42751
12.2129 10.3602 7.42751
10.4056 10.6473 7.37863
9.36785 10.3269 7.32906
8.58907 9.70874 7.32906
10.4855 10.7906 7.22785
9.23726 4.79382 7.22785
13.6009 5.73816 7.22785
8.35978 5.50634 7.17624
14.2031 7.36424 7.17624
7.84571 6.29127 7.12399
11.4237 10.9044 7.0711
13.3682 5.25535 7.0711
14.2837 7.35914 7.0711
14.3143 7.24936 7.01758
14.325 8.11387 6.96345
8.37859 5.24196 6.96345
13.4245 5.20213 6.96345
13.703 5.53646 6.96345
12.4015 4.37673 6.85341
13.7627 5.49277 6.85341
12.6172 10.6984 6.79753
9.17385 10.6713 6.79753
7.41608 8.18651 6.79753
13.58 5.20954 6.79753
12.4454 10.8616 6.68411
9.65895 4.17199 6.68411
9.02418 10.7016 6.6266
9.49348 4.0692 6.39158
12.2912 4.04711 6.39158
12.6312 4.16725 6.33165
9.41805 3.88402 5.90065
13.1749 10.9249 3.41937
12.7263 3.97804 3.35572
12.7082 4.01394 3.22935
14.5948 7.92095 2.56142
9.02418 4.44207 2.5034
13.2842 4.8671 2.38891
14.4616 7.9083 2.33247
14.4333 8.13112 2.33247
7.37365 7.85235 2.33247
10.013 10.9748 2.27659
13.0659 4.7792 2.27659
14.233 6.4896 2.22128
8.45341 5.16289 2.16655
14.0019 6.11331 2.11242
10.2593 10.8768 2.0589
9.74792 4.41184 2.0589
9.28532 4.67025 2.00601
12.841 10.2423 1.95376
12.4894 10.463 1.95376
13.5127 5.54701 1.95376
8.22837 5.9121 1.80094
7.81154 7.32595 1.75137
13.9188 8.24559 1.70249
10.1285 4.60207 1.70249
11.475 4.5489 1.70249
12.0343 4.70748 1.70249
13.969 7.1847 1.70249
13.3064 5.7081 1.65433
8.10089 8.54228 1.6069
10.7084 4.5978 1.6069
12.1742 4.86687 1.6069
13.2108 5.66335 1.6069
11.3514 10.4261 1.51425
8.67337 5.75932 1.51425
11.6194 4.77114 1.51425
8.34555 8.64419 1.42464
10.2986 4.90427 1.381
9.18299 5.51999 1.33816
13.09 5.98477 1.33816
12.3917 5.38348 1.29612
11.8573 5.16251 1.2549
8.61407 8.61896 1.2145
10.98 5.03992 1.2145
8.85175 8.93913 1.17494
8.60279 8.28853 1.13622
13.2484 6.8918 1.13622
10.0954 9.79497 1.09836
11.605 9.7261 1.02523
11.0387 9.71622 0.955634
8.93752 6.74604 0.955634
8.78364 6.68194 8.18905
8.89496 6.23309 8.11418
10.9776 5.14489 8.11418
12.8333 6.07758 8.11418
13.1971 8.56276 8.07542
13.307 6.70781 8.03578
8.96908 9.36038 7.95391
13.3957 8.64918 7.91171
13.2403 8.95243 7.91171
12.9388 9.36466 7.91171
11.5742 4.95234 7.91171
10.9853 4.82019 7.86867
11.1588 4.82978 7.86867
11.3313 4.85031 7.86867
12.7315 5.49947 7.86867
13.6602 7.31151 7.86867
13.0168 9.43392 7.82481
8.48787 8.96755 7.82481
13.4187 8.95371 7.78013
13.1138 9.39952 7.78013
9.07513 9.75107 7.78013
8.65854 5.74735 7.73466
8.35674 6.10087 7.68839
8.94021 5.37762 7.68839
12.2472 4.93117 7.68839
13.3594 5.90332 7.68839
13.5502 6.22387 7.68839
8.90743 9.80238 7.64135
8.4674 5.83676 7.64135
9.78682 4.78942 7.64135
13.5913 9.04915 7.59354
9.25687 10.1315 7.59354
7.8983 7.13958 7.59354
11.4798 4.52281 7.54497
13.7221 6.24573 7.54497
8.53464 5.51978 7.49566
8.14612 5.73806 7.29125
12.2229 4.51237 7.29125
14.2216 8.42396 7.18492
11.8501 4.29143 7.18492
14.3145 7.24934 7.18492
14.369 7.4629 7.13076
11.1129 11.0572 7.07597
13.5301 5.25389 7.07597
7.4117 7.18254 7.02055
7.44326 6.96192 7.02055
12.7964 4.58191 7.02055
9.78534 10.9548 6.96452
9.88192 11.0248 6.9079
7.85096 5.67939 6.9079
14.27 6.23815 6.9079
13.6434 5.15329 6.85068
8.37128 4.9204 6.7929
7.24494 7.04612 6.73457
8.8 4.52417 6.73457
8.8267 10.7935 6.49596
8.41355 10.7295 6.06047
6.82729 8.02597 3.32693
9.39062 3.81667 3.13336
12.246 3.81667 2.94301
13.3306 10.709 2.88034
8.38128 10.5706 2.8181
12.8103 4.33731 2.45431
10.0776 11.1875 2.39543
12.266 4.11186 2.39543
11.8111 11.1401 2.3371
7.3739 6.59659 2.3371
14.4342 7.23797 2.10945
9.70607 10.8446 2.05403
8.66459 4.90766 2.05403
7.4905 7.95238 1.99924
7.81547 6.16207 1.94508
14.002 6.11324 1.94508
12.7103 10.4245 1.89158
9.10826 4.78348 1.83875
14.0278 8.4795 1.73513
7.70226 7.21478 1.73513
10.0862 4.44348 1.73513
12.8106 4.9436 1.73513
10.2942 10.7024 1.68438
14.0729 7.06992 1.68438
11.9677 10.5389 1.63434
7.86674 8.10745 1.58503
8.33409 5.86232 1.58503
10.6025 4.48817 1.58503
13.9589 7.86054 1.53646
10.7996 10.622 1.53646
13.3451 9.34541 1.48865
12.0093 10.3718 1.48865
13.8622 7.85135 1.44161
10.1717 10.3795 1.39534
8.65854 9.3963 1.39534
8.07532 6.97966 1.39534
9.73961 4.91669 1.39534
9.90951 4.84749 1.39534
13.4172 6.08598 1.39534
13.706 8.19778 1.34987
12.1211 4.98138 1.34987
10.721 10.369 1.30519
8.73754 9.33257 1.30519
8.36677 8.73125 1.30519
13.4439 8.67013 1.26133
9.14163 5.47114 1.26133
12.9193 5.68008 1.26133
12.8217 5.65518 1.21829
10.0373 9.95182 1.09422
8.54714 6.67024 1.09422
12.7639 5.82714 1.09422
9.03747 5.95233 1.05458
8.65074 6.70961 1.01582
12.5746 5.79537 1.01582
13.2277 6.81801 1.01582
10.9749 9.88554 0.940952
8.84787 6.20196 8.19672
11.2269 10.1511 8.11649
10.8996 10.1692 8.11649
12.7495 5.7279 8.11649
13.2419 6.28776 8.07504
13.4891 6.90875 8.07504
8.56848 6.12182 7.98954
13.2485 6.08487 7.98954
10.0244 10.242 7.9455
8.62082 9.19837 7.9455
8.32017 6.4889 7.9455
13.561 8.82168 7.8549
8.53484 9.25919 7.8549
8.3413 8.94531 7.8549
8.29923 6.28044 7.8549
10.0788 4.77382 7.8549
11.5381 4.7162 7.8549
12.1707 4.87435 7.80837
10.9917 4.54854 7.76103
8.20672 6.12667 7.71289
12.0525 10.4829 7.66397
11.6768 10.6023 7.66397
9.92676 10.5332 7.66397
8.26135 9.21122 7.66397
9.27658 10.2849 7.61427
11.4928 4.45191 7.61427
13.7872 6.21489 7.61427
14.0669 7.17228 7.61427
13.2588 9.78481 7.56382
10.5903 4.36897 7.56382
14.2329 7.57183 7.46068
8.54996 5.25718 7.46068
11.6208 4.33392 7.46068
13.2088 5.11442 7.40802
8.97698 4.77859 7.35465
9.73671 4.38162 7.35465
10.148 4.25797 7.35465
12.4481 4.53158 7.35465
14.3074 7.25001 7.35465
11.2189 11.0051 7.30059
13.7017 5.53739 7.30059
10.4533 11.0295 7.24585
10.3241 11.1343 7.07766
12.038 4.05576 6.96238
13.0201 10.6947 6.84471
7.16843 7.86858 6.84471
7.40208 6.23519 6.84471
13.2961 10.6641 6.60268
8.57425 10.7267 6.54087
14.9361 8.08175 6.28883
13.4867 10.7024 6.28883
13.284 10.8582 6.28883
6.79483 8.43054 5.83186
8.3942 10.9688 5.76519
14.5868 9.91343 5.22242
13.3291 10.9207 3.03476
12.2936 3.68186 3.03476
7.14428 8.23419 2.40523
9.0728 10.8506 2.28529
7.15718 7.51242 2.28529
11.5862 11.2007 2.16762
11.2367 11.2093 2.10967
12.2296 10.9381 2.05234
14.3872 6.55919 2.05234
8.52723 10.2237 1.99563
8.44471 4.99678 1.99563
9.79722 10.9194 1.93957
13.9544 5.76632 1.93957
7.435 7.40665 1.88415
9.62013 10.7635 1.82941
11.5264 10.8748 1.72198
12.6144 4.67245 1.72198
14.1966 6.83565 1.72198
8.37757 9.62297 1.61739
7.90448 6.31575 1.61739
8.91825 10.0937 1.56618
14.0669 7.97138 1.51573
7.90837 8.40009 1.46603
13.8423 8.52643 1.41711
10.5088 10.6184 1.41711
7.98312 8.48018 1.41711
7.91038 6.94533 1.41711
8.46766 5.71806 1.41711
13.9195 6.8979 1.41711
13.799 8.3149 1.32163
13.7246 8.39095 1.2751
8.70513 9.47723 1.2751
10.0076 10.2923 1.22939
8.52276 6.09362 1.1845
11.6024 4.83931 1.1845
10.2367 10.1355 1.05496
8.89845 5.9409 1.01351
11.0635 4.97831 1.01351
13.0175 6.13723 0.972947
13.2501 6.55786 0.972947
13.0939 6.36962 0.93328
11.1504 4.92532 8.19721
11.3997 4.95897 8.19721
13.2545 9.06263 8.11153
10.987 10.3965 8.06737
11.4302 4.79277 8.06737
10.3342 10.502 7.92967
7.95017 7.90137 7.92967
8.65479 5.62313 7.92967
10.8961 4.53104 7.88208
11.1883 4.49061 7.83366
14.0501 7.8692 7.78443
7.80768 8.01705 7.78443
11.3974 4.41317 7.7344
7.74401 8.23296 7.68357
7.77413 8.54482 7.63197
10.3688 10.867 7.57961
8.73085 10.1577 7.52649
7.53572 7.73223 7.52649
7.5202 8.05817 7.47263
14.3392 7.247 7.47263
14.4813 7.79701 7.30677
13.512 10.0243 7.30677
8.36722 5.07872 7.30677
8.10953 5.30445 7.2501
8.95252 4.5438 7.2501
13.0533 4.6063 7.19276
14.3926 6.43749 7.19276
12.7839 10.7612 7.13477
8.71585 4.60742 7.13477
8.98533 4.37793 7.07613
9.40304 4.15967 7.07613
14.5875 6.86864 7.07613
14.4614 6.16197 6.957
8.82297 4.34443 6.89653
15.0358 8.22703 6.26243
9.57836 3.57177 6.13002
10.885 3.12248 3.89264
12.4748 3.57513 3.20148
9.47067 3.66441 2.86757
8.55574 10.9706 2.80199
6.8667 8.41558 2.80199
13.3212 10.9098 2.73685
14.8908 8.20395 2.54423
13.2491 10.8095 2.48101
13.1271 10.8537 2.41831
9.20007 4.01047 2.41831
12.6648 11.0433 2.29452
10.6469 11.411 2.23347
14.6468 6.60994 2.23347
7.27866 6.4456 2.173
7.95349 5.17857 2.173
14.6259 8.2824 2.11313
7.16972 7.98797 2.11313
9.60776 4.03401 2.11313
13.3124 4.65379 2.11313
8.98533 10.7657 2.05387
7.42935 6.24555 2.05387
12.8837 10.7008 1.99523
10.1958 11.1942 1.99523
7.23749 7.28054 1.99523
12.1363 11.0165 1.93724
7.2893 7.16896 1.93724
11.5721 11.1236 1.8799
13.0288 4.64035 1.8799
13.8348 5.44005 1.8799
12.1081 10.9365 1.82323
8.97586 4.57972 1.82323
11.5565 11.0385 1.76724
12.9782 4.71062 1.76724
9.40665 4.4382 1.71195
12.9256 10.3599 1.65737
8.24701 9.7283 1.65737
7.63894 8.58663 1.65737
12.4416 10.5991 1.60351
9.16462 10.4698 1.60351
11.3203 4.2074 1.60351
12.871 10.284 1.55039
10.4731 10.8828 1.55039
10.2651 10.848 1.55039
7.61276 7.09873 1.55039
8.87275 10.151 1.49803
7.96622 9.0273 1.49803
8.27163 9.44539 1.44643
7.92533 6.32444 1.44643
13.2765 5.34211 1.44643
11.0965 4.38219 1.3956
7.91638 8.50082 1.34557
12.9926 9.79706 1.24792
13.7884 8.40957 1.20033
13.488 9.09981 1.20033
8.37659 6.0035 1.20033
13.2888 9.30426 1.15358
8.88632 9.68748 1.15358
8.17343 8.23468 1.06263
12.9911 9.4111 1.01847
10.7232 4.805 8.23459
11.1656 4.75109 8.19035
13.6925 8.38158 8.1452
9.96609 4.7277 8.05223
10.8964 4.57206 8.05223
13.758 8.70166 8.00444
11.5004 4.4107 7.85597
13.292 9.81622 7.80483
9.78439 4.51017 7.80483
7.72255 8.45119 7.75287
11.7235 4.35438 7.75287
13.9627 9.0118 7.70013
12.7094 10.423 7.70013
12.1404 10.709 7.70013
7.64787 8.36152 7.70013
7.57446 7.94306 7.70013
14.32 7.89484 7.6466
7.90574 5.96636 7.6466
8.71336 4.96527 7.6466
13.581 5.35489 7.5923
13.7156 5.52723 7.5923
11.3348 4.08561 7.53725
14.3455 6.80219 7.53725
10.7779 11.1719 7.42493
7.3535 8.08201 7.42493
13.024 4.64704 7.42493
13.8643 5.41853 7.3677
14.112 5.80652 7.3677
13.8293 5.2997 7.30977
13.2876 4.68405 7.25116
8.39037 10.3754 7.19187
13.3402 10.5237 7.13193
14.7296 7.33094 7.13193
9.13376 10.9905 7.07135
14.7754 7.45006 7.07135
13.7502 4.89388 7.01015
6.88176 7.76323 6.7594
12.635 3.87306 6.6953
15.227 8.25747 6.02785
9.12217 3.52793 5.81974
14.9243 9.78636 4.0938
8.3178 11.0716 3.10215
13.2136 10.9825 2.49932
6.93682 8.01381 2.30705
13.6016 10.4509 2.18166
8.57245 10.7291 2.18166
14.4066 5.92179 2.05865
14.6963 7.57183 1.93813
12.5085 10.9977 1.93813
7.15566 7.27407 1.93813
8.59841 10.4966 1.87884
9.23085 10.8047 1.7623
10.8916 11.1746 1.70507
9.77432 10.9877 1.70507
14.4614 7.90828 1.64855
9.07699 10.6144 1.64855
8.70842 10.358 1.64855
7.39864 8.07556 1.64855
7.89214 5.70478 1.64855
9.37302 4.36857 1.64855
11.114 11.0773 1.59275
9.8036 10.9004 1.59275
7.60045 6.42911 1.59275
8.11938 5.4548 1.59275
13.3129 5.00272 1.59275
8.76677 10.2845 1.5377
10.6742 4.11712 1.5377
12.7985 10.3651 1.42987
10.4697 4.23594 1.42987
14.0066 6.22863 1.42987
8.47558 9.81279 1.37713
14.1709 7.88068 1.32517
12.2936 4.60926 1.32517
13.9061 8.76062 1.27403
8.1779 9.14542 1.2237
9.02099 9.96426 1.12556
11.3516 4.71597 0.984803
13.6079 8.64189 8.26916
13.9106 8.24376 8.12804
11.8488 4.65084 8.12804
7.84607 8.11108 8.07921
10.1021 4.50294 8.02951
12.0715 4.61187 8.02951
8.4059 9.60011 7.97894
11.2002 4.35367 7.97894
13.8398 9.18658 7.87526
13.7321 9.36761 7.87526
8.53657 10.0513 7.76828
13.8003 9.54185 7.71359
8.83795 4.77163 7.71359
14.3169 6.57973 7.65811
14.1124 9.20791 7.60186
9.06153 10.6399 7.60186
11.5763 11.1467 7.54486
9.136 10.7385 7.54486
7.61067 9.07458 7.54486
12.7539 4.43376 7.54486
12.5732 10.861 7.48711
14.0988 5.54185 7.36944
14.5077 6.27317 7.30955
10.0446 11.3295 7.24898
8.33537 10.4364 7.24898
7.31336 6.20148 7.24898
8.07603 4.9646 7.24898
8.24623 4.79032 7.24898
14.9054 8.33598 6.93639
12.7423 3.94609 6.93639
10.3674 11.6654 6.8071
15.1112 7.83684 6.67558
8.41431 10.9418 6.67558
9.21402 3.73454 6.67558
12.5653 3.70808 6.67558
15.167 8.38614 6.40637
15.1613 8.66651 6.26894
13.6972 10.9592 6.26894
10.8835 2.9364 5.34052
6.94051 10.0257 4.08356
7.90351 10.7099 2.79213
12.4878 3.54174 2.72363
12.4659 3.59793 2.58804
7.65348 5.10263 2.25797
12.3912 3.79 2.19361
8.77274 10.8765 2.00416
14.6965 6.59713 1.94226
12.543 11.0722 1.88102
7.10513 7.63206 1.82045
9.04725 4.24768 1.82045
7.25371 8.45664 1.76056
8.57517 4.61776 1.76056
14.3826 6.19331 1.70137
13.594 10.1019 1.64289
7.31612 6.82163 1.64289
8.05849 5.40877 1.52814
13.1057 4.72741 1.52814
14.4518 7.34852 1.47189
8.20421 9.76283 1.41641
10.5626 4.10072 1.41641
14.3166 8.11254 1.36172
13.6307 9.68882 1.36172
7.83494 9.09199 1.36172
14.1228 8.50723 1.25474
14.0574 8.70748 1.25474
12.3235 4.54486 1.25474
13.9651 8.25601 1.05079
10.0376 4.63654 1.00196
13.8407 8.52588 8.25281
10.0024 4.51945 8.15398
11.0992 4.33317 8.10322
7.91257 9.17366 7.94569
9.73502 4.37706 7.94569
10.6745 4.12013 7.89148
13.43 10.1017 7.78058
7.3604 8.19628 7.72392
8.14284 9.96093 7.66648
11.5815 3.96859 7.66648
12.461 4.24823 7.66648
11.3586 11.2578 7.60826
7.31172 8.44264 7.60826
14.4104 6.30839 7.60826
14.3673 9.072 7.54928
7.44957 9.01739 7.54928
7.26547 6.68986 7.54928
14.7263 7.57183 7.48956
9.05179 10.8879 7.48956
7.13712 7.99159 7.48956
7.07253 7.38947 7.42911
14.8585 7.69622 7.30608
9.31928 11.1724 7.30608
7.03898 6.891 7.30608
13.221 4.37308 7.30608
14.8526 7.32317 7.30608
8.64547 4.30203 7.24354
13.1661 10.9118 7.18033
12.0291 3.66029 7.11646
13.1889 4.19801 7.11646
8.79296 11.0833 7.05196
8.44726 10.8975 6.98684
14.6082 5.68165 6.98684
13.5947 10.8342 6.85481
12.6003 3.62588 6.72049
13.499 11.1569 6.44555
12.5317 3.42884 6.3756
8.25082 11.1616 6.30519
13.8818 10.9603 6.23436
7.90523 10.9131 6.23436
6.52024 8.63365 6.16311
15.4143 8.28728 6.09146
7.87143 10.9505 6.09146
6.7601 9.95902 4.75439
8.70055 11.8196 4.29992
6.7216 9.80798 3.92283
6.74158 9.79734 3.77298
6.5844 9.21915 3.32877
13.6043 11.3034 3.18297
12.1739 3.1494 3.18297
11.5393 11.6695 2.14316
8.55348 10.9739 2.14316
12.6633 3.81205 2.14316
13.7182 10.5761 2.07804
11.8952 11.4769 1.94967
7.70924 5.14478 1.94967
14.8537 8.19804 1.88646
12.8202 4.07113 1.88646
9.78556 3.79833 1.82392
11.6236 3.73927 1.76205
12.3165 11.1616 1.70089
12.1873 11.1609 1.64044
12.7358 4.22666 1.64044
10.2997 3.86383 1.58072
13.883 5.25775 1.58072
14.3673 6.07166 1.58072
14.5859 8.1554 1.52174
8.26444 10.1653 1.52174
14.1259 9.34481 1.46352
7.31173 8.20482 1.46352
9.43178 4.22432 1.46352
14.3186 8.22347 1.23852
7.71613 8.56276 1.13094
8.15914 9.27424 1.02678
13.5583 9.25663 0.926147
10.2098 4.52319 0.926147
11.4233 4.24184 8.12421
10.4621 4.17905 8.0706
11.5382 4.20454 8.0706
8.6725 10.2267 8.01612
8.08034 9.58072 8.01612
13.9558 9.37818 7.96078
13.5614 9.91753 7.96078
7.97325 9.51988 7.96078
10.6693 4.04822 7.96078
11.3374 4.06404 7.96078
13.9228 9.62568 7.84757
13.3995 4.90967 7.84757
14.6094 7.57183 7.78973
13.5999 10.1075 7.78973
13.0744 10.5668 7.78973
7.42414 6.24357 7.73109
11.3677 11.3346 7.67166
13.0346 4.4274 7.67166
14.3355 9.32227 7.61145
13.2584 10.6151 7.61145
7.85848 9.88608 7.61145
10.1676 3.80846 7.61145
14.0563 5.27809 7.55049
13.8601 10.1829 7.48878
7.2481 6.04235 7.42634
11.5144 3.6387 7.42634
11.2689 11.5791 7.36319
9.8841 3.68507 7.36319
6.95838 8.66134 7.23481
6.83636 7.1187 7.23481
13.5515 10.7814 7.16962
8.44357 10.9024 7.16962
12.9194 3.88843 7.10377
7.8016 10.4306 7.0373
13.3435 11.1756 6.83424
8.22 10.9733 6.83424
8.01073 10.7962 6.83424
11.9722 3.35833 6.83424
12.1143 3.3597 6.7654
14.7513 5.45295 6.7654
12.0048 3.22779 6.55565
9.57558 3.09993 6.04973
9.71153 3.03763 5.97582
15.2615 9.46112 5.82699
15.1375 9.90429 5.44971
15.8163 7.41719 4.44898
13.6523 3.50887 4.37166
15.0357 10.0208 3.52858
7.0996 10.4597 3.52858
6.53152 9.39978 3.37791
15.4207 9.04204 3.30301
9.27343 3.13269 3.30301
6.46503 8.79702 2.9336
9.45072 3.19124 2.9336
15.4299 8.28977 2.78855
12.5757 3.31586 2.78855
6.57318 8.76728 2.64528
15.3102 8.27071 2.50391
9.12754 3.54001 2.43399
13.3232 11.1455 2.22749
14.8689 5.8534 2.22749
7.8934 10.5277 2.0927
14.9781 8.61922 2.02623
13.3674 10.9741 2.02623
8.86288 11.2232 2.02623
6.85676 8.41765 1.96038
8.88281 3.95582 1.96038
14.8985 8.59867 1.89519
11.6619 11.6131 1.89519
12.612 11.2211 1.76681
7.31186 5.79393 1.76681
14.3385 5.53779 1.70366
13.6567 10.3301 1.57951
8.50439 10.6151 1.57951
12.5344 11.0537 1.51855
7.13995 8.23495 1.51855
11.011 3.73505 1.51855
7.51493 9.11806 1.39891
7.31418 6.58017 1.39891
14.3891 8.82757 1.34027
8.84259 4.5854 1.28243
12.0066 4.15471 1.22541
7.99907 9.24804 1.00579
7.8112 8.86676 1.00579
13.8693 8.63939 0.800356
10.7987 4.49757 0.751312
8.36694 9.50174 8.40647
7.9169 9.84191 7.85554
8.86889 4.4151 7.85554
8.27547 10.3229 7.7957
14.5831 6.50197 7.7957
14.041 5.28922 7.73506
12.5673 11.1247 7.67362
7.09724 8.62315 7.61142
6.96766 7.88446 7.61142
12.8114 4.08728 7.61142
9.40659 11.2878 7.54845
8.32753 10.6341 7.54845
8.70852 4.16828 7.48474
10.8877 11.6762 7.4203
10.6287 11.666 7.4203
13.2105 4.16579 7.4203
13.7479 4.53563 7.35514
9.82933 3.47958 7.22277
13.9963 4.66101 7.22277
13.0982 11.299 7.08775
10.2078 11.8296 7.08775
6.83824 8.97692 7.08775
13.682 10.9406 7.01929
14.3533 4.89049 7.01929
13.588 11.2807 6.59628
9.18481 3.31136 6.5239
9.45713 3.21035 6.5239
7.89105 11.1497 6.30391
9.28972 3.17659 6.30391
6.37411 8.82202 6.22969
7.60173 11.0238 6.00462
11.6419 2.79473 5.85274
15.7325 8.18287 5.77631
13.8757 11.4185 5.77631
6.71258 9.98629 5.77631
11.0374 2.61817 5.23393
10.7233 2.58833 4.91991
13.5778 3.33684 4.52553
10.7273 2.68876 3.50743
11.0349 2.72214 3.35369
15.5126 9.07204 3.27726
14.6159 10.6509 3.20115
7.37419 10.8225 3.20115
12.2322 2.94385 3.20115
10.2795 2.82661 3.12538
15.5757 8.46451 2.97494
7.57634 10.6371 2.46185
7.13601 5.07031 2.46185
11.3044 11.9866 2.24945
11.4392 11.9355 2.17978
14.9023 9.01334 1.90723
13.1713 11.1591 1.90723
6.80315 8.56537 1.90723
13.5783 4.32957 1.8407
6.77562 7.76826 1.77486
9.72545 3.59842 1.77486
15.0506 7.17941 1.77486
14.9919 8.08884 1.7097
14.7335 9.09004 1.7097
6.81605 7.63662 1.7097
7.76098 10.1204 1.64526
14.9286 6.9337 1.64526
14.8051 8.57457 1.58155
7.96245 4.86047 1.58155
14.6479 6.08772 1.58155
11.7587 3.69677 1.51858
12.2401 3.83326 1.51858
7.0628 6.89518 1.45638
14.6427 6.35579 1.45638
7.91068 9.99963 1.39494
11.8446 3.86942 1.3343
7.40091 8.90892 1.27446
7.70035 9.41946 1.21544
7.31625 8.20402 1.15725
7.8988 9.43477 1.04345
8.57979 10.1655 0.987854
10.8925 4.07851 0.987854
10.9987 4.2526 0.826475
13.8818 9.33411 8.32436
11.649 4.20347 8.32436
7.7758 9.12113 8.26949
7.6843 8.91962 8.26949
14.1874 8.99369 8.21369
13.8423 9.70911 8.15698
10.8906 3.83991 8.0409
13.412 10.4227 7.98155
8.43896 10.5025 7.92135
9.33876 11.1286 7.86032
14.6761 8.93144 7.7358
14.0682 5.11312 7.7358
11.3978 11.5876 7.67234
11.275 11.649 7.60812
14.9131 6.67464 7.60812
7.10805 9.30282 7.4774
6.96392 6.06871 7.41095
15.2313 7.84443 7.27593
12.9808 11.3684 7.27593
11.7151 11.9027 7.13821
14.9943 5.79881 7.06838
14.3638 10.4409 6.99792
6.77095 5.68777 6.85521
10.4497 12.1401 6.78299
7.41246 10.5892 6.71021
12.7584 3.25464 6.56308
12.6324 3.1699 6.48876
8.08399 11.386 6.41396
14.0669 11.172 6.33869
14.1022 11.2124 6.18686
9.51385 2.89462 6.03341
6.51876 9.74052 5.95613
7.16897 10.7987 5.80054
15.5057 9.56739 5.5649
14.8615 10.6501 5.5649
13.8959 3.43492 4.76623
15.9958 7.08961 4.44424
13.3511 12.0506 4.36377
10.8799 2.47596 4.36377
5.8285 7.49144 4.28335
11.3574 2.54808 3.80299
6.70831 10.1688 3.32946
15.6044 9.10205 3.2515
9.65089 2.81012 3.2515
9.3669 2.94134 3.09659
14.3432 11.0221 3.01967
6.19547 8.71203 3.01967
9.38242 2.9876 2.94314
8.00276 11.247 2.56692
7.26804 10.5181 2.56692
14.4484 10.5114 2.34701
7.95271 11.0769 2.34701
6.50521 8.3463 2.13208
10.0489 3.21474 2.06162
11.578 11.9257 1.99179
6.63971 8.60482 1.99179
8.10156 10.901 1.9226
12.9601 11.3303 1.78622
10.8863 11.8482 1.78622
6.79668 8.70581 1.78622
6.83949 6.44962 1.71905
13.5745 10.8095 1.6526
10.6296 11.6541 1.52188
8.91119 11.1375 1.52188
13.4136 4.32658 1.52188
12.1454 3.71789 1.45766
7.10393 6.39156 1.3942
13.1209 10.8446 1.33154
7.3269 9.06849 1.26968
9.84554 3.99783 1.0891
7.52603 8.98554 1.03062
7.44358 8.76854 1.03062
11.7972 4.05923 0.973016
13.7962 9.67537 0.916311
8.1169 9.69073 8.39807
7.66588 9.04951 8.34212
7.90648 9.70371 8.22741
7.66861 9.43768 8.16868
14.2198 9.67908 7.98716
11.7482 3.74521 7.98716
14.7297 8.68449 7.92493
13.4363 10.6409 7.92493
11.3889 3.63088 7.92493
6.91132 7.25474 7.86186
14.0031 4.83379 7.73327
15.0414 7.44166 7.73327
9.46883 11.4842 7.66779
7.17695 9.41621 7.66779
7.06802 9.17632 7.66779
6.74774 7.6377 7.66779
13.6982 4.3935 7.60152
12.7156 11.4446 7.53451
10.7516 11.8372 7.53451
10.4828 11.8181 7.53451
8.59422 11.1513 7.53451
8.37297 4.1463 7.53451
12.3567 3.50294 7.46675
7.3604 5.05364 7.39827
15.1421 6.48212 7.39827
10.6074 11.9652 7.32908
10.1933 3.22768 7.32908
12.6457 3.51941 7.32908
10.7446 12.016 7.25921
6.63633 9.04642 7.11746
15.1292 5.89608 7.11746
10.3087 12.1009 7.04562
6.47744 8.64398 7.04562
13.6544 11.373 6.82648
15.2458 5.68936 6.75228
15.5268 9.07667 6.45021
9.23464 3.02812 6.45021
15.3993 9.6917 6.14063
5.99476 8.11834 6.14063
9.94375 2.68868 6.0622
15.3916 9.86354 5.90425
7.42375 11.209 5.82476
15.3676 10.0315 5.66487
11.2017 2.48053 5.5845
6.43365 10.1464 5.09766
8.51558 12.1736 4.85218
8.36961 12.0987 4.77018
7.82203 3.40534 4.27782
11.8377 2.57301 3.46513
7.21631 10.9672 3.22575
15.5073 9.5681 3.1466
14.0919 11.4406 3.1466
7.93495 11.5864 3.1466
12.1321 2.71805 3.1466
15.7619 8.50022 2.91134
6.19227 8.87203 2.83372
10.572 2.68087 2.83372
9.37892 2.97718 2.67979
6.17664 8.40394 2.60352
6.13358 8.10294 2.60352
14.5446 10.5916 2.37772
15.0872 5.43615 2.30352
9.44253 3.16682 2.22989
11.1746 12.1736 2.15683
7.33306 10.4656 2.15683
15.307 8.8531 2.08438
14.6089 10.2698 2.08438
15.1661 5.88139 2.08438
14.7383 10.0102 2.01254
15.0742 5.76404 2.01254
10.7446 3.12768 1.87079
14.8398 9.58073 1.80092
7.86767 4.39651 1.80092
9.80874 3.40232 1.66325
12.2276 3.45961 1.66325
13.2138 3.91686 1.66325
7.51476 4.99777 1.59549
12.0583 11.5864 1.46221
8.22383 10.7566 1.46221
6.74774 7.50596 1.46221
6.82188 7.11709 1.39673
7.67103 5.1159 1.33203
9.52155 11.3421 1.26814
7.2101 8.98142 1.20507
10.6422 3.66651 1.14284
14.8275 7.32476 1.14284
13.6392 10.3125 1.08146
14.1007 9.20192 0.787877
7.5562 9.50218 8.17721
11.4996 3.73697 8.17721
8.53899 4.36957 8.05298
14.7839 6.57455 8.05298
11.9 11.4964 7.98955
15.0105 7.83048 7.92526
6.89857 6.18751 7.72745
7.87728 4.60025 7.72745
6.73765 6.56248 7.65992
15.0099 6.23583 7.65992
6.85293 9.11712 7.59161
6.5698 7.50315 7.59161
10.4696 11.9467 7.52255
6.87353 5.73435 7.45276
12.3997 3.38118 7.45276
15.186 6.32588 7.45276
15.329 8.4172 7.38224
6.89316 5.58762 7.38224
9.74156 3.15027 7.23912
14.3415 4.53327 7.23912
11.1751 12.1824 7.16655
14.8459 10.0789 7.09333
15.6462 7.87067 6.94502
6.35404 8.82754 6.94502
11.4838 2.8327 6.86997
6.96643 4.77494 6.71816
15.7711 8.50198 6.48646
15.2425 9.96234 6.48646
15.437 9.88679 6.09099
7.07232 10.8818 6.09099
6.66647 10.3837 6.01068
11.6884 2.48743 5.84899
6.70615 10.5528 5.76766
6.67726 10.5733 5.60411
8.06474 11.9661 5.35689
8.0432 3.14438 5.02461
8.18098 12.0935 4.9412
13.733 3.08945 4.8577
13.4477 12.2286 4.43951
8.03961 3.13884 4.1888
13.8371 11.9096 3.69048
15.016 10.7708 3.52589
15.53 9.93446 3.44398
5.97128 9.10241 3.44398
6.4431 10.1409 3.36234
15.7881 9.16206 3.2
14.2904 11.4277 3.2
15.5956 9.60649 3.11932
15.462 9.72135 2.87954
12.8781 2.97372 2.80043
6.82542 4.86499 2.5658
14.8012 10.4104 2.33566
12.521 3.03782 2.33566
15.5801 8.16351 2.11052
11.4703 12.1973 2.03667
14.6136 4.87049 1.89088
15.4532 7.57183 1.81898
11.5974 12.0541 1.81898
10.1721 12.0428 1.81898
14.1809 10.6573 1.74776
7.25518 10.1645 1.74776
6.52506 6.65696 1.74776
6.95781 5.46148 1.74776
8.96772 3.52937 1.74776
14.1809 4.48636 1.74776
14.778 5.27626 1.74776
9.91162 11.9001 1.67724
6.63498 8.75028 1.67724
14.9371 5.6707 1.67724
6.64476 8.6036 1.60745
14.6996 5.32289 1.60745
7.53382 10.3037 1.53839
8.54949 3.92355 1.53839
10.8857 3.22115 1.53839
13.4325 11.0646 1.47008
9.55184 3.49269 1.47008
6.77358 7.76836 1.26986
8.04326 4.57918 1.26986
6.93585 8.53335 1.20474
7.05563 6.37662 1.14045
11.1435 3.53295 1.14045
13.6398 10.492 1.07702
14.7301 8.55522 1.01446
10.8899 3.75106 0.892014
14.3655 9.62192 8.18253
7.21808 9.25285 8.11879
10.231 11.6905 7.98866
8.87028 11.2101 7.98866
6.83177 8.42285 7.98866
15.0939 7.44 7.98866
11.1537 3.34881 7.92231
11.6837 3.41187 7.92231
15.1159 7.03909 7.92231
13.1065 11.3132 7.78712
8.53159 3.896 7.71831
15.0386 5.93216 7.64872
13.5368 11.2095 7.57836
8.0247 10.9918 7.57836
8.72053 3.66777 7.57836
12.2921 11.887 7.50724
6.74014 9.31289 7.50724
6.46013 8.35421 7.50724
12.8247 3.46384 7.50724
15.4122 8.43315 7.43539
11.3167 12.1285 7.43539
9.60314 11.9521 7.43539
10.3081 3.03902 7.43539
11.754 12.1146 7.36283
13.1442 11.6694 7.28957
6.69988 9.65127 7.21563
